x y z
6.640 244.192 72.979
212.232 133.542 64.500
227.207 7.453 116.287
117.585 215.270 105.561
149.559 3.685 97.394
240.213 228.525 38.083
131.038 169.205 103.889
202.289 55.814 127.099
184.237 240.275 48.214
171.363 50.452 130.000
27.909 146.156 119.806
177.006 189.873 59.114
215.242 165.741 62.273
35.908 108.466 114.310
25.195 43.274 75.678
76.107 159.876 132.488
19.106 82.876 97.083
127.426 207.798 105.217
101.436 97.780 144.495
245.890 51.730 105.909
96.689 237.571 86.447
214.717 123.195 65.125
208.749 221.212 41.621
117.382 106.341 150.000
93.159 46.276 113.000
127.656 161.698 111.111
177.238 238.038 54.828
209.407 188.850 60.222
199.745 169.569 74.123
128.761 62.887 131.667
35.279 26.886 77.812
232.653 157.633 47.678
75.291 92.863 128.220
166.976 225.058 69.375
5.510 24.634 70.000
115.643 3.824 85.204
61.522 195.894 103.704
170.954 150.818 97.051
210.984 116.102 72.833
124.683 223.902 100.340
114.381 146.063 133.162
48.144 247.839 60.000
129.673 25.091 106.818
53.398 225.196 73.750
131.057 206.655 103.214
123.287 162.386 115.185
237.042 19.002 115.797
245.817 233.959 36.196
69.372 177.946 120.700
18.580 28.161 70.000
59.151 49.678 98.333
91.577 17.489 91.125
178.808 37.443 129.916
20.408 91.372 102.333
196.429 84.879 111.447
209.226 203.236 48.816
91.327 86.837 134.545
249.136 199.465 40.627
133.043 32.774 113.095
143.992 55.260 129.727
59.530 243.504 60.000
139.510 233.532 88.472
233.307 110.925 65.556
122.897 195.359 110.952
30.725 191.053 92.692
209.697 227.374 40.000
246.489 163.648 40.000
182.200 51.914 130.000
234.656 173.706 45.534
105.971 49.450 119.286
250.113 21.497 110.000
42.035 98.430 113.364
102.321 183.649 122.075
147.148 229.438 84.487
108.308 147.973 136.717
56.906 127.333 128.756
86.016 46.024 109.889
85.772 43.993 107.444
166.964 246.540 61.831
133.531 175.712 101.667
66.425 20.513 83.068
133.204 130.823 133.833
93.974 252.107 73.846
40.985 150.000 120.000
210.465 252.409 37.003
46.073 18.519 77.824
190.995 83.933 115.014
172.674 44.542 130.000
44.766 29.110 80.156
153.519 112.760 126.296
138.238 159.849 101.841
182.690 7.898 116.078
193.321 33.648 129.741
95.267 37.853 107.889
181.232 172.275 76.111
50.439 174.376 113.750
10.109 80.970 94.333
183.747 12.890 119.385
86.085 142.291 140.000
243.606 213.020 41.700
174.110 159.496 88.286
88.220 161.902 135.536
217.835 248.898 36.202
239.861 113.522 59.643
250.718 204.365 40.000
182.600 6.259 115.288
141.040 59.636 131.522
131.431 64.356 133.261
96.223 178.687 125.667
144.311 16.326 102.083
157.259 69.789 139.800
125.286 4.498 88.061
15.560 19.214 70.000
251.011 132.223 45.915
210.392 22.180 124.326
150.532 249.451 70.385
206.997 165.207 70.333
54.329 44.521 93.052
219.627 202.418 48.807
73.143 17.928 83.049
237.413 183.996 45.167
93.540 249.947 76.154
96.567 239.368 85.333
106.102 32.994 108.718
251.229 253.602 30.146
236.992 115.908 59.231
69.208 116.260 134.562
32.642 252.524 65.173
225.990 142.232 54.231
79.970 234.355 74.432
184.177 95.423 112.143
111.911 102.691 150.000
64.948 127.797 132.782
70.715 79.539 119.103
211.824 155.060 65.909
210.617 11.046 120.870
152.211 80.446 140.000
16.793 225.881 70.714
139.832 79.450 143.547
236.140 17.452 116.142
242.978 42.396 109.545
242.603 243.571 33.608
247.198 109.123 59.528
99.861 191.248 117.353
162.485 24.841 117.766
112.293 214.652 106.119
225.063 27.684 120.995
110.002 30.507 108.889
224.641 49.261 120.932
167.340 127.729 110.417
233.874 161.984 46.324
239.068 147.444 44.216
203.679 220.952 42.707
197.818 130.253 79.667
185.308 46.586 130.000
237.581 27.584 114.859
208.768 145.116 68.636
213.484 49.528 125.052
37.633 93.933 108.818
36.277 38.138 78.007
247.066 243.512 33.167
220.704 56.338 121.540
75.309 25.699 90.571
25.976 207.850 79.643
156.931 34.654 120.861
238.595 247.063 32.957
86.830 84.608 131.161
234.802 134.796 49.134
146.756 21.558 107.361
22.889 238.987 65.568
2.956 151.812 110.000
227.306 11.143 118.117
248.951 12.543 110.754
143.265 26.618 110.513
162.545 49.502 130.000
131.967 235.140 91.659
224.107 179.148 54.618
194.938 128.171 83.704
127.264 147.375 121.552
156.258 125.040 119.500
134.494 163.095 102.879
97.775 106.295 146.182
52.016 4.656 70.000
139.273 85.575 145.505
169.453 203.749 65.625
103.511 122.863 148.415
96.527 107.914 145.892
135.863 170.972 99.500
63.917 206.075 92.800
235.010 134.989 48.688
80.596 202.522 105.667
11.662 81.911 95.000
154.038 101.574 132.800
176.328 147.495 95.233
89.329 97.900 138.300
103.322 45.337 115.980
21.428 129.765 114.963
188.010 251.554 44.335
90.839 181.723 123.023
186.097 131.536 92.188
132.046 183.943 102.778
64.864 81.850 115.732
116.215 205.841 110.304
177.906 175.286 72.778
145.380 232.429 84.487
10.054 146.581 111.687
95.218 87.911 136.818
206.236 163.561 70.357
46.100 127.387 122.429
17.479 10.604 70.000
127.070 222.447 100.067
225.446 23.309 120.871
66.552 204.585 96.400
98.905 22.933 98.243
158.853 253.811 63.125
236.108 175.466 44.328
9.574 126.428 112.435
65.572 164.457 125.726
70.902 157.113 130.351
94.620 26.441 99.429
27.141 25.720 73.200
89.307 54.814 116.631
174.406 225.162 60.357
209.218 19.006 123.645
227.332 18.955 119.780
160.686 69.592 138.880
77.519 218.186 86.250
43.100 132.009 120.000
65.423 174.843 120.849
138.836 36.223 116.429
137.290 231.715 90.934
170.463 146.562 99.884
122.879 233.017 96.176
67.656 143.896 131.132
149.352 26.097 112.556
237.257 203.479 45.341
239.416 112.919 60.500
137.210 153.682 108.206
147.928 216.414 89.091
51.786 122.246 125.708
195.843 139.385 81.500
65.266 221.793 77.500
84.030 101.562 137.130
7.148 150.484 110.000
200.702 117.750 80.556
142.762 219.744 92.308
52.508 50.712 92.727
247.343 31.577 107.257
244.021 88.251 84.167
95.999 221.961 96.250
58.856 90.860 117.976
222.038 30.513 121.931
100.513 201.406 111.786
202.277 115.883 80.000
213.354 93.409 96.071
19.096 166.175 109.643
19.378 19.397 70.000
54.057 191.988 103.182
57.921 101.167 123.488
197.890 6.754 115.797
236.355 212.589 43.584
66.453 118.487 133.669
194.984 126.338 84.375
44.331 247.288 60.000
222.922 131.709 56.591
41.473 100.486 114.091
74.319 78.296 121.354
192.266 242.870 42.416
53.316 152.231 123.978
120.659 202.501 110.345
114.931 189.951 116.417
147.480 149.749 106.818
92.690 247.432 76.923
54.786 194.617 100.455
193.197 69.760 123.501
116.580 223.610 101.711
230.909 119.753 58.462
184.948 33.378 129.190
238.900 68.652 107.162
133.611 31.120 112.381
206.539 62.320 123.608
131.276 113.520 148.385
203.026 157.562 72.821
138.648 86.808 146.212
68.628 197.012 105.185
72.186 123.350 136.886
144.632 217.680 91.282
162.660 152.972 98.000
190.527 226.153 46.570
104.053 6.801 85.762
12.736 168.931 109.286
192.783 67.459 125.002
63.041 145.660 128.869
59.695 203.110 94.286
44.629 46.697 84.091
22.720 222.517 70.000
110.804 48.581 120.400
19.735 201.692 85.405
194.473 75.561 119.605
37.342 31.067 79.000
67.745 197.225 104.697
29.811 118.923 114.837
90.680 166.339 132.761
227.672 49.663 119.595
150.958 31.138 116.333
100.607 211.852 105.238
145.380 232.429 84.487
248.865 96.605 73.333
90.155 188.704 118.298
128.431 196.840 106.250
154.031 42.512 124.712
44.039 151.787 120.111
80.597 176.159 124.884
24.625 166.627 110.000
74.147 116.550 136.928
76.824 154.772 134.015
38.902 163.981 115.842
134.267 49.190 124.600
34.449 119.996 116.506
164.176 166.708 84.286
145.459 54.993 129.787
196.157 12.313 121.185
149.332 111.682 131.364
59.456 243.194 60.000
224.894 92.302 91.731
27.242 89.975 102.778
190.085 63.033 128.003
61.519 75.057 110.128
9.166 153.867 110.582
250.750 61.689 102.000
168.540 109.264 116.471
185.866 113.723 100.741
242.529 93.009 78.889
96.664 147.293 140.000
24.371 82.319 98.250
117.388 100.414 150.000
87.160 78.353 128.889
15.137 60.581 84.773
85.345 113.634 141.774
194.181 117.398 87.500
81.076 172.097 127.907
5.124 127.011 111.000
252.229 231.629 35.942
218.199 40.172 123.624
39.484 196.117 91.081
250.738 164.140 40.000
167.786 214.407 69.286
128.713 245.357 88.171
109.813 61.319 127.872
27.696 169.676 108.571
131.892 141.704 123.387
237.243 123.863 52.821
226.244 122.939 58.724
142.687 237.641 83.571
219.848 221.408 41.763
88.048 200.544 110.213
71.155 171.332 125.000
85.676 127.642 142.408
183.957 182.789 65.006
175.720 9.657 115.903
92.746 138.013 141.023
143.236 182.865 90.556
18.993 229.962 69.141
213.151 180.692 62.351
8.436 135.702 111.716
11.887 185.336 97.909
157.650 164.898 88.857
153.890 26.355 114.333
213.340 164.207 64.091
134.383 142.126 120.484
19.244 144.466 116.164
94.485 7.365 84.324
108.327 120.547 149.643
74.543 119.255 137.421
61.624 162.446 124.643
74.743 198.444 107.407
180.003 153.853 89.722
69.521 58.406 108.251
207.703 121.367 71.667
14.000 226.014 71.758
45.684 134.192 120.741
247.291 191.668 41.178
173.568 219.836 61.875
130.684 143.510 122.097
123.134 193.259 110.833
4.594 94.085 101.775
185.453 20.548 123.382
73.342 117.011 136.586
82.826 168.338 130.690
124.611 137.612 131.667
239.907 26.080 113.661
168.624 248.651 59.653
98.063 136.050 142.108
242.845 130.704 47.973
159.684 195.579 75.500
251.835 122.982 49.900
14.573 126.226 113.031
74.089 168.449 128.000
230.635 208.002 45.623
68.324 175.771 121.500
157.113 115.343 120.758
53.737 237.610 63.714
19.812 188.516 94.400
113.025 217.127 104.664
14.378 11.969 70.000
36.279 7.341 70.000
34.463 181.870 101.111
174.673 73.197 132.105
141.043 228.167 89.615
126.637 200.179 107.405
168.877 102.850 120.000
132.153 59.084 130.217
185.541 212.678 50.455
243.959 189.731 42.698
168.470 28.617 122.326
96.404 66.411 126.635
74.250 5.945 74.839
2.396 141.075 110.000
180.197 89.306 118.553
146.530 115.121 133.269
14.964 232.086 69.930
72.163 65.191 113.214
196.286 210.558 47.838
19.434 25.172 70.000
215.238 15.385 121.616
10.191 47.908 77.055
64.643 143.271 129.550
72.849 101.402 131.271
28.079 101.873 109.127
155.619 131.902 118.068
203.758 131.281 73.500
181.700 146.145 92.000
127.670 102.923 150.000
211.815 87.034 103.214
218.849 118.024 66.021
127.003 127.355 139.833
155.894 15.567 108.401
107.719 40.221 114.444
153.047 109.439 128.333
199.600 210.459 46.856
31.517 113.834 114.688
25.378 105.882 110.066
122.818 242.456 91.842
9.660 205.160 86.040
148.469 243.790 75.333
146.667 124.933 128.788
112.013 76.725 137.177
30.410 158.076 116.000
195.373 62.229 126.462
122.266 48.410 122.642
83.488 82.983 128.646
24.315 16.927 70.000
130.680 119.941 145.103
37.593 241.075 62.290
90.431 91.737 136.080
172.490 77.400 131.577
235.340 141.184 47.056
166.987 10.491 112.627
102.318 151.187 138.950
183.070 31.749 128.131
204.628 35.992 128.243
76.930 239.293 68.256
225.878 129.417 55.031
155.087 198.651 79.677
66.635 241.618 60.000
135.873 82.715 144.737
136.170 117.898 142.263
153.536 119.143 123.500
102.014 202.717 111.525
2.655 155.364 110.000
108.131 252.087 82.000
243.439 72.263 101.757
164.417 251.125 60.119
121.221 42.819 118.889
131.717 14.424 96.660
175.615 121.316 105.455
22.705 6.036 70.000
153.650 233.305 77.821
222.011 234.746 38.236
100.717 19.449 96.562
117.515 116.841 150.000
44.878 53.443 85.714
197.342 95.372 101.667
175.768 244.455 55.500
173.759 79.563 130.118
20.250 5.002 70.000
9.667 35.283 70.305
63.959 44.988 97.824
216.486 145.578 61.364
107.318 183.592 121.607
221.520 142.927 57.206
216.690 210.989 45.877
165.776 47.470 130.000
143.826 5.010 93.157
7.884 15.944 70.000
183.526 56.880 130.000
56.701 243.714 60.000
47.529 52.944 88.500
130.632 219.465 100.214
219.789 146.888 58.846
65.948 216.246 82.759
186.828 40.837 130.000
64.076 241.086 60.000
51.947 115.350 124.776
154.901 221.136 81.364
45.347 98.183 115.100
76.852 222.020 81.250
90.981 185.687 120.233
236.939 250.781 32.673
160.420 252.912 62.353
111.629 95.307 147.500
139.151 195.396 96.500
72.041 76.003 119.103
208.072 120.546 71.364
221.541 42.480 122.346
83.123 152.004 137.791
93.793 146.770 140.000
186.557 169.085 78.750
151.258 119.519 125.500
182.913 26.908 125.519
154.139 16.062 108.110
11.184 229.236 72.213
251.317 59.443 100.970
112.492 248.768 87.143
154.622 222.756 81.364
199.097 128.926 78.333
160.316 30.267 120.094
193.512 72.837 121.983
141.182 75.016 141.667
87.654 110.533 141.797
243.291 247.911 32.323
47.545 156.037 121.059
239.301 251.783 31.977
247.509 134.868 45.488
53.786 148.426 124.271
8.164 121.629 110.861
39.304 5.545 70.000
51.345 4.086 70.000
204.541 186.039 63.075
172.533 246.610 57.125
171.226 153.719 94.231
91.299 156.323 138.615
234.249 126.078 52.024
190.565 150.040 83.750
198.048 3.505 110.769
208.222 57.588 124.702
97.799 227.727 93.750
27.187 55.510 82.143
87.748 13.791 86.220
29.413 66.156 90.385
238.419 238.426 35.450
177.633 76.205 128.667
120.470 137.425 134.459
224.948 191.838 52.433
41.730 244.233 60.333
30.896 23.231 74.695
57.067 126.416 129.566
140.734 21.171 105.152
239.535 235.714 36.191
37.143 24.558 78.564
173.597 99.012 118.171
198.231 141.455 78.182
233.367 131.897 50.000
80.977 61.709 116.111
237.840 220.785 40.787
81.318 99.563 134.722
198.720 39.042 130.000
244.483 252.834 30.951
150.065 9.258 100.972
77.878 179.634 122.093
197.487 55.570 128.734
174.429 145.520 97.558
206.371 79.361 112.266
37.086 113.780 116.615
5.384 62.168 84.474
250.023 192.897 40.000
71.604 94.607 126.915
179.287 171.288 77.222
131.892 102.744 150.000
153.878 169.760 87.000
195.066 237.078 41.369
203.990 244.347 39.318
91.031 107.109 143.017
181.343 148.236 91.279
81.248 248.002 66.379
145.787 138.407 119.286
202.067 208.255 46.731
152.252 106.467 131.818
182.784 134.061 95.000
249.966 34.944 104.138
43.015 97.239 113.500
143.697 96.652 145.013
69.682 179.454 119.457
74.564 228.661 74.659
239.264 179.631 42.910
106.771 55.133 123.404
102.145 109.448 149.988
106.890 176.482 125.492
183.610 141.644 91.714
232.988 62.366 113.675
131.946 167.868 104.444
222.052 134.310 56.071
6.786 115.840 108.734
179.937 139.460 95.714
145.329 160.061 97.564
11.142 134.456 113.239
11.808 103.482 105.833
156.529 27.963 116.333
152.699 100.773 135.600
113.228 205.033 110.664
66.039 248.577 60.000
99.322 115.741 148.727
107.789 240.464 90.802
166.157 200.480 69.286
187.891 147.352 86.667
152.431 145.568 109.259
33.409 39.430 76.789
188.792 220.728 48.345
204.329 108.667 84.394
8.618 119.448 110.209
244.685 90.904 81.667
55.194 149.344 125.074
251.877 84.331 85.000
73.504 32.747 94.535
223.480 235.908 37.868
171.707 50.488 130.000
173.919 56.142 130.000
206.789 35.607 127.643
63.112 148.559 128.608
138.198 164.632 98.953
58.332 139.214 126.964
169.360 238.936 62.903
62.273 36.242 92.717
12.738 140.387 113.179
135.068 47.638 123.438
57.631 187.016 108.636
40.093 126.818 119.790
34.423 129.488 118.611
195.755 133.587 81.852
37.293 236.776 65.223
128.868 123.544 143.028
168.908 182.768 69.342
194.512 86.190 110.343
148.222 252.764 70.000
84.303 113.296 141.290
78.394 220.939 85.000
246.081 87.142 84.583
133.612 50.684 125.000
166.121 100.456 123.077
48.003 117.743 123.250
71.807 63.491 111.548
110.783 147.504 135.312
233.703 122.753 55.357
161.271 16.374 112.843
232.381 212.001 44.046
186.396 163.384 82.806
144.828 65.210 136.087
211.467 99.887 90.357
212.417 247.023 37.227
249.902 89.787 80.833
236.350 204.990 45.662
217.061 131.939 60.000
204.827 244.878 39.153
238.441 249.252 32.549
171.553 219.919 64.375
218.701 11.754 120.033
209.725 136.537 67.500
186.707 195.701 52.542
43.861 113.399 119.310
21.243 146.650 116.940
44.686 48.052 84.688
57.601 81.083 111.341
172.058 37.218 128.357
110.187 181.471 121.721
64.293 148.698 129.021
73.959 226.391 75.735
13.480 46.622 77.021
167.690 37.925 126.528
115.272 251.913 82.667
65.496 40.095 96.630
236.496 153.049 45.000
150.042 173.450 86.556
2.007 71.974 89.649
125.233 28.762 109.545
215.129 159.138 62.273
187.802 102.349 104.697
235.779 85.808 92.241
125.154 89.797 147.451
95.885 80.505 133.333
102.602 40.818 112.647
182.138 170.494 78.333
240.796 200.770 44.377
242.144 132.811 47.162
227.311 213.776 44.339
201.851 203.986 48.654
245.261 97.117 73.333
46.172 118.647 122.167
3.758 107.485 105.974
204.686 154.852 72.083
65.633 232.588 66.818
66.026 192.437 108.889
21.260 90.877 102.045
106.377 94.118 145.093
178.535 19.135 121.412
66.546 34.537 93.152
116.536 98.307 150.000
229.958 164.863 49.583
175.938 63.693 131.135
77.149 81.153 124.479
96.892 127.250 145.981
181.138 61.624 130.000
158.297 174.843 80.875
231.315 25.604 118.185
59.162 46.388 97.298
90.864 234.156 84.286
110.496 194.509 115.975
26.462 119.637 114.300
216.263 253.548 35.882
140.152 67.437 136.757
37.157 114.800 116.776
235.057 75.111 103.000
170.073 97.149 121.618
151.501 152.884 101.852
119.986 244.797 90.789
93.648 44.172 111.667
197.774 71.110 121.228
183.986 53.968 130.000
213.631 238.567 38.898
112.812 241.200 91.943
113.724 166.430 123.939
155.567 98.689 133.654
58.736 146.201 126.606
145.832 94.781 144.216
5.959 157.100 110.000
79.708 143.699 137.821
62.398 139.383 129.107
143.352 88.744 144.798
82.442 190.258 115.682
195.106 109.773 91.000
69.297 120.583 135.344
21.560 116.192 112.150
170.876 159.916 89.375
230.250 202.241 47.599
221.753 228.895 39.624
249.897 217.923 40.000
228.449 214.867 43.879
135.589 58.882 130.216
233.979 207.262 45.604
211.671 144.046 65.909
228.792 78.098 103.906
111.618 140.544 139.324
248.535 134.826 45.359
62.316 171.501 121.316
62.614 129.251 131.639
129.599 169.592 106.111
87.356 9.760 83.293
51.398 31.567 85.089
174.726 103.622 115.488
191.690 59.713 129.535
195.710 105.063 94.821
54.029 126.700 127.669
210.418 151.458 66.818
137.160 53.064 127.188
251.511 67.005 99.771
197.607 236.591 40.300
176.708 141.792 97.714
196.551 221.884 45.000
52.376 25.122 82.767
156.934 128.626 118.750
110.634 60.616 127.447
95.102 144.343 140.000
219.266 8.322 118.399
53.299 88.419 114.296
88.692 109.684 141.953
114.019 208.759 109.156
224.967 20.448 120.521
143.265 194.496 92.069
78.648 22.525 89.146
104.253 99.490 146.955
191.544 234.101 44.425
101.640 226.704 96.064
43.219 78.600 102.386
110.887 129.456 144.783
114.467 111.650 150.000
81.924 20.422 89.146
26.628 26.982 72.400
237.761 154.471 44.146
228.966 32.130 119.688
248.828 201.453 40.842
122.396 180.527 113.056
107.711 21.116 100.556
66.135 3.343 70.250
70.363 214.897 86.957
120.642 171.225 115.667
114.221 134.568 140.673
189.820 175.141 72.913
155.130 93.370 136.724
82.159 204.705 104.333
45.527 26.479 80.000
229.385 44.732 118.444
43.123 23.707 80.000
171.281 27.892 122.797
77.934 10.828 79.886
250.583 96.559 72.755
43.709 56.287 86.280
40.939 27.812 80.000
130.706 73.282 138.980
121.271 92.565 148.431
233.612 250.043 33.166
227.017 21.300 120.013
216.871 136.501 60.500
24.818 49.724 78.795
2.424 130.963 110.000
35.510 82.896 102.212
73.814 221.303 80.435
209.440 78.757 112.703
231.499 130.050 51.232
16.767 228.507 70.000
226.546 85.724 98.269
53.795 3.462 70.000
46.527 21.701 79.689
196.571 218.856 45.568
58.397 179.280 114.674
215.541 222.471 41.136
181.461 144.225 92.571
78.425 8.919 78.977
73.315 70.332 116.471
99.607 102.641 145.714
155.849 203.315 80.556
87.386 27.523 97.375
201.827 88.906 105.286
188.700 182.295 65.625
23.674 126.854 114.810
77.478 22.139 88.659
59.984 95.415 121.300
209.506 65.118 121.709
29.843 75.795 96.275
16.276 196.281 90.200
85.684 153.386 138.373
241.906 14.106 113.847
8.775 240.512 72.045
236.838 156.212 44.583
195.122 221.029 45.476
222.298 156.301 56.111
189.055 162.475 81.828
8.846 135.733 111.716
210.708 100.121 89.630
229.335 231.646 38.124
144.285 101.995 142.625
139.395 196.063 96.500
249.430 76.778 94.865
45.182 221.435 75.909
207.872 246.642 38.253
224.129 122.724 59.235
195.958 52.463 130.000
60.617 253.970 71.250
39.264 31.620 80.000
187.055 99.074 106.667
216.299 179.895 60.901
198.735 47.321 130.000
222.256 41.466 122.070
83.343 49.821 110.812
60.800 116.774 130.611
173.314 58.634 130.000
144.011 26.300 110.769
8.039 61.664 83.947
181.310 197.770 54.036
141.297 45.229 123.191
77.279 130.006 139.112
179.336 118.600 103.750
15.889 238.017 68.361
230.036 160.322 48.775
160.036 168.494 84.189
120.348 112.916 150.000
17.587 30.281 70.000
89.401 93.754 136.400
109.176 61.687 127.872
30.998 174.183 105.385
109.067 249.146 85.429
114.677 243.585 91.207
36.542 180.011 102.692
85.374 138.034 140.779
42.983 90.079 109.519
94.778 132.987 143.721
245.362 45.086 106.609
164.626 36.049 124.969
122.336 16.795 98.333
75.693 240.309 66.628
146.733 237.804 80.667
91.902 200.656 110.800
14.646 75.110 91.667
240.359 85.441 89.583
77.363 133.110 138.745
177.764 173.676 75.000
46.838 221.231 76.136
25.190 105.735 110.066
140.036 163.471 98.188
121.053 121.826 147.075
124.137 221.104 101.248
57.431 111.726 127.500
234.368 161.343 45.507
77.261 113.255 137.500
29.324 208.392 79.642
149.933 192.811 85.500
225.132 215.011 43.870
160.331 116.177 118.191
198.882 108.383 89.167
137.632 86.914 146.616
70.471 74.315 116.538
155.614 203.088 80.556
120.871 81.209 141.765
49.095 248.979 60.000
30.071 144.073 120.000
108.232 38.708 113.333
126.261 225.285 99.203
250.402 225.643 37.814
86.316 99.701 137.300
40.284 43.526 80.455
67.466 14.665 78.750
116.411 168.237 120.606
109.378 123.014 147.788
235.961 215.371 42.697
240.574 186.376 43.824
129.861 64.652 133.000
217.487 58.432 121.944
211.060 90.664 100.000
10.028 7.170 70.000
89.113 171.830 129.767
127.265 182.143 108.333
68.102 49.118 103.158
213.125 187.185 59.576
30.658 220.312 71.220
168.179 113.512 114.118
93.004 46.088 113.000
8.867 50.569 78.246
167.372 129.634 110.250
167.898 213.388 69.048
102.247 135.717 142.686
63.751 67.085 107.879
175.899 158.567 88.857
23.561 136.682 117.131
19.821 245.922 64.744
61.421 130.896 130.984
164.163 29.302 121.364
187.831 243.673 45.804
237.473 244.792 33.733
86.262 88.158 132.627
164.058 50.839 130.000
179.337 148.720 92.674
25.993 93.380 104.386
91.601 149.633 140.000
8.842 181.407 101.354
238.298 159.079 42.500
63.248 238.139 61.364
184.448 36.365 130.000
106.533 29.638 106.548
32.241 252.276 65.173
10.091 77.584 92.333
20.789 218.171 72.695
140.896 178.264 93.889
188.795 199.638 50.000
247.726 226.197 37.890
230.634 183.422 50.378
186.842 190.355 56.942
8.605 43.500 74.561
123.777 160.608 115.926
190.045 80.816 117.578
126.282 217.222 102.487
163.567 179.742 74.625
64.570 22.425 84.000
184.398 202.828 50.455
52.819 223.308 75.417
172.487 95.137 121.429
40.360 239.432 63.487
104.576 23.386 101.310
218.044 252.330 35.535
41.881 8.110 72.353
175.991 203.852 58.636
136.134 117.157 142.263
76.116 207.882 99.038
211.767 156.208 65.909
183.971 43.727 130.000
237.541 135.537 47.599
190.057 18.699 123.099
123.058 4.182 87.653
21.669 111.673 110.806
165.648 237.802 67.097
194.494 158.001 79.524
107.344 238.408 91.872
44.547 88.099 109.744
